ply
format ascii 1.0
element vertex 751
property float x
property float y
property float z
property float nx
property float ny
property float nz
end_header
10.9636323 30.1610082 20.2439609 0.3838286 -0.3264056 0.8637911
1.7803539 30.8128218 -20.4135438 0.4492665 -0.7796485 -0.4362429
1.9720974 30.8029552 -19.2914917 0.5408913 -0.8220649 -0.1778927
6.4948118 27.8438825 -16.0139712 0.8784362 -0.2349117 -0.4161326
6.5230141 27.9508254 -14.9270009 0.8465509 -0.2692463 -0.4591927
8.4004133 26.6815519 -13.9147744 0.6918467 -0.2241323 -0.6863766
13.2979578 23.3990637 -11.0305382 0.3118971 -0.6354959 -0.7063039
13.9952473 22.9985605 -10.0513747 0.6005567 -0.6010094 -0.5273703
14.4206689 22.8007730 -9.0579472 0.7552350 -0.5564393 -0.3464034
14.6134419 22.7771957 -8.0460350 0.8050605 -0.5855678 -0.0948050
14.6251606 22.8898266 -7.0143594 0.8048785 -0.5927588 -0.0284162
14.3319890 23.2326816 -5.9421434 0.9286396 -0.3660637 -0.0602150
16.7528832 21.6471912 -4.2011563 0.8810000 -0.1880512 -0.4341379
16.8680281 21.6803797 -3.1946704 0.9138426 -0.1526819 -0.3762711
15.5659233 22.7890481 -1.9545906 0.6280161 -0.7032883 0.3331387
15.9736133 22.6018498 -0.9826205 0.6412529 -0.6941576 -0.3270168
16.1307108 22.6048042 0.0305730 0.6761959 -0.6567831 -0.3337589
16.4773071 22.4632841 1.0068056 0.6075446 -0.6383014 -0.4727164
17.3241398 21.9392810 1.8761057 0.6378529 -0.7563694 -0.1450825
16.9068215 22.3805613 3.0046476 0.5193299 -0.7758936 0.3581697
16.7264213 22.6417557 4.0915838 0.5456205 -0.7999645 0.2497101
16.6163048 22.8498633 5.1690435 0.7807270 -0.5684864 -0.2594005
16.9195591 22.7409049 6.1496279 0.9416494 -0.2748756 0.1942672
16.4912487 23.1948375 7.3166475 0.7286686 -0.5403320 0.4208127
16.3103009 23.4594933 8.4295806 0.7586943 -0.6431483 0.1036494
16.7435538 23.2505816 9.3776480 0.9797074 -0.1988518 -0.0251274
16.9213236 23.2386542 10.3942837 0.8752528 0.1183874 0.4689531
14.7877004 25.0179703 12.1086546 0.4366446 -0.8005329 0.4104736
14.5137868 25.3595334 13.2910059 0.7341974 -0.6462173 0.2082243
14.4087541 25.5709118 14.4282604 0.6743177 -0.4761632 0.5644149
13.4062380 26.4819644 15.8718024 0.0986014 -0.6796687 0.7268619
11.7096253 27.9374994 17.5808626 0.2011765 -0.8080666 0.5536753
10.4403651 29.0639238 19.1785402 0.3972021 -0.7053336 0.5871414
0.5510101 30.3336076 -20.3525078 0.3401028 -0.8778763 -0.3371400
0.9667948 30.1619921 -19.2214314 0.3702864 -0.8681979 -0.3303336
5.8195886 27.0121082 -15.9376226 0.5534550 -0.7262244 -0.4077814
8.0986499 25.5958142 -13.8505160 0.5024923 -0.7098945 -0.4935092
8.3418470 25.5416967 -12.7888953 0.7185470 -0.6595399 -0.2206748
11.4984324 23.4684391 -10.8635308 -0.1834337 -0.6867139 -0.7034032
13.7682265 22.0365410 -8.9696424 0.6383489 -0.4649472 -0.6134613
14.1538072 21.8710945 -7.9751907 0.8806775 -0.4537708 -0.1360120
13.9318030 22.1549750 -6.9166995 0.9204199 -0.3894436 -0.0340710
15.6907782 21.0891724 -5.0698862 0.7296448 -0.0601478 -0.6811760
16.2159466 20.8173114 -4.1176897 0.8477353 -0.3707118 -0.3793647
14.7842891 22.0026733 -2.8719766 0.5100717 -0.7527531 0.4161605
14.8059990 22.1071483 -1.8320107 0.8257884 -0.3644241 -0.4304284
15.2256735 21.9144710 -0.8585962 0.8372427 -0.3326544 -0.4340112
15.9682844 21.4793845 0.0497523 0.9555025 -0.1307002 -0.2644473
16.0611986 21.5301234 1.0728896 0.7570194 -0.4063146 -0.5116933
16.3614860 21.4252602 2.0547692 0.4152013 -0.9097270 -0.0021573
15.8281266 21.9472529 3.2140079 0.4087698 -0.8626392 0.2979277
15.7533554 22.1253570 4.2838460 0.5911506 -0.7896813 0.1641474
15.8620804 22.1655375 5.3151226 0.5573602 -0.6640764 -0.4983493
17.2073141 21.2710320 6.0409566 0.8583585 -0.4507244 -0.2450881
17.0130196 21.5394134 7.1397039 0.8101232 0.2057841 0.5489565
15.4987126 22.8098640 8.6013755 0.8915241 -0.3387389 0.3007339
16.3589650 22.2804791 9.4342092 0.7624886 -0.4713011 -0.4432678
16.7395246 22.1143880 10.3915080 0.9556415 -0.2899417 0.0517986
13.7129045 24.5446932 12.3710426 0.7240022 -0.6640178 0.1868184
13.9951033 24.4568609 13.3864244 0.9903266 -0.1323678 -0.0416175
14.1449287 24.4699660 14.4420747 0.9349311 -0.1537188 0.3198036
10.7715948 27.1816966 16.6745080 0.2238657 -0.8237930 0.5208159
9.8429110 28.0267816 18.1412148 0.2783562 -0.7800026 0.5604585
9.3795507 28.5170616 19.4664855 0.3477379 -0.7941814 0.4983515
-0.6315988 29.8028124 -20.2896397 0.2653952 -0.7167572 -0.6448446
-0.2254035 29.6416626 -19.1518127 0.4870067 -0.8274738 -0.2794845
4.9148184 26.3396748 -15.8557049 0.4722274 -0.7745763 -0.4207527
5.0797733 26.3455738 -14.7663525 0.5097915 -0.7822493 -0.3580484
6.9719335 25.1075702 -13.7509787 0.2347920 -0.8126140 -0.5334146
7.3390936 24.9657012 -12.6891336 0.2973770 -0.9411595 -0.1605793
13.4333989 21.0361014 -8.9107087 0.5713742 -0.5016872 -0.6494933
13.7560546 20.9190343 -7.9106992 0.8420171 -0.5358308 0.0623901
13.3448364 21.3359823 -6.8309659 0.8394935 -0.5201748 -0.1570633
15.4946711 20.0026564 -5.0330860 0.7910359 -0.3452232 -0.5050576
15.7406313 19.9393153 -4.0430571 0.7407276 -0.6656352 -0.0908428
14.3749138 21.0568254 -2.8068292 0.9685275 -0.0461633 0.2445885
14.3672476 21.1811201 -1.7621621 0.8439447 -0.1134477 -0.5242967
15.6460322 20.3600760 -0.9384229 0.8821695 0.0188617 -0.4705542
16.1293018 20.1221639 0.0092169 0.9339631 -0.3547518 -0.0431760
14.8291019 21.1988119 1.2982307 0.5192035 -0.7346216 0.4367595
14.6683867 21.4371887 2.3833838 0.4143607 -0.8316052 -0.3697811
15.3643549 21.0424896 3.2902132 0.7793475 -0.5223235 0.3461151
14.7817258 21.5940507 4.4754681 0.7896130 -0.6119721 0.0447374
14.9547923 21.5864636 5.4972600 0.4629125 -0.4644682 -0.7549710
16.6321973 20.4604276 6.1464253 0.7973587 -0.4949391 -0.3453323
16.7458922 20.4951936 7.1671961 0.8251706 -0.2938720 0.4824239
15.1766604 21.7853274 8.6412463 0.9758267 -0.1827922 0.1197885
15.8879794 21.3758801 9.5149483 0.9055166 -0.2978966 -0.3021544
16.1093326 21.3317435 10.5190711 0.9366481 -0.3061113 0.1702532
13.2931718 23.5641443 12.4356122 0.9675678 -0.2278010 -0.1091750
13.8955168 23.2374067 13.3511623 0.9513176 -0.2431889 -0.1893513
13.8545971 23.3933175 14.4646723 0.7811330 -0.4126431 0.4685690
9.2902772 26.9567723 17.0896983 0.5074387 -0.6751061 0.5354790
8.4627302 27.7127532 18.5319401 0.3052455 -0.6287547 0.7151872
7.5382883 28.5444384 20.0304042 0.5126897 -0.6262178 0.5873675
-1.8595199 29.2869002 -20.2264582 0.1984519 -0.6009738 -0.7742398
-1.0102145 28.8178454 -19.0789548 0.4732532 -0.7486055 -0.4643504
-0.5028270 28.5879944 -17.9430263 0.4066237 -0.7703802 -0.4910921
4.0103297 25.6561783 -15.7732928 0.3004920 -0.7892512 -0.5355250
4.2538690 25.6069086 -14.6821125 0.4381107 -0.8295302 -0.3463215
5.7363053 24.6800568 -13.6460692 0.1252445 -0.7072873 -0.6957431
6.2214927 24.4576989 -12.5827675 0.3998306 -0.9148360 -0.0566624
6.0599159 24.6941381 -11.4848073 0.3329050 -0.8983209 -0.2866946
12.6654351 20.3469144 -8.8114779 0.3570197 -0.6472119 -0.6735382
13.1132421 20.1427126 -7.8209310 0.7319114 -0.6813997 -0.0002668
12.6989989 20.5551355 -6.7385022 0.7679714 -0.6356441 -0.0785909
14.2366389 19.5690143 -5.8852319 0.5170194 -0.3907100 -0.7616013
14.7993614 19.2800690 -4.9296847 0.6213591 -0.7488799 -0.2304165
14.8052709 19.3908069 -3.9023183 0.5276042 -0.8140330 0.2428664
14.2852705 19.8808613 -2.7908831 0.9291396 0.0282646 -0.3686472
15.1163949 19.3973195 -1.8872685 0.8215744 -0.1973963 -0.5348366
15.4005683 19.3076204 -0.9020325 0.9246181 -0.3343665 -0.1824294
15.4234226 19.4068395 0.1289090 0.7605073 -0.5883902 0.2746372
13.4956462 20.9209537 1.5430941 0.5651196 -0.8148808 0.1288764
14.0104034 20.6657757 2.4989052 0.5371779 -0.4797379 -0.6937517
15.2828622 19.8585431 3.2839072 0.7854770 -0.3345597 -0.5206685
14.4006723 20.6187694 4.5331801 0.9124177 -0.2659316 0.3110858
14.4556013 20.6974819 5.5824896 0.5891762 -0.3133858 -0.7447555
15.9936142 19.6922772 6.2674646 0.7477615 -0.5761910 -0.3299343
16.3137316 19.5755787 7.2373466 0.8432817 -0.5290542 0.0947502
15.4977901 20.2916713 8.5086531 0.7313728 -0.4660577 0.4978796
15.6178619 20.3225121 9.5396176 0.7937803 -0.6038776 -0.0724203
15.8260329 20.2886329 10.5459680 0.8711342 -0.4882635 -0.0521918
15.5695094 20.5971019 11.6908373 0.6825095 -0.3319195 0.6511607
13.5346281 22.2192687 13.3975731 0.9554571 -0.2777029 -0.0999143
8.5068775 26.0594978 16.1141678 0.6918890 -0.7219759 -0.0063586
9.0603974 25.7789983 17.0873567 0.8527116 -0.5222071 0.0135157
9.1053324 25.8748338 18.2269198 0.7622320 -0.1180211 0.6364538
6.9652848 27.5943785 20.1429477 0.8669889 -0.3278267 0.3753131
6.7839815 27.8618672 21.3944758 0.8972149 -0.1057771 0.4287384
-3.1544740 28.7994663 -20.1631973 0.2418991 -0.4800376 -0.8432371
-2.1139349 28.2069831 -19.0072500 0.4554425 -0.7920789 -0.4064273
-1.7417954 28.0752528 -17.8647394 0.4992258 -0.8304445 -0.2472558
3.0257620 25.1390062 -14.5837994 0.0437125 -0.9587004 -0.2810389
5.2141258 23.8567743 -12.4817449 0.3900982 -0.9003441 -0.1928830
5.0822858 24.0690881 -11.3799971 0.3695606 -0.9205262 -0.1267142
11.7588980 19.7466603 -8.6991165 0.0702254 -0.6857532 -0.7244383
12.2476534 19.5176359 -7.7080231 0.5663893 -0.7923112 -0.2268172
13.6496986 18.7580754 -5.7979194 0.4582926 -0.6881304 -0.5625340
13.9222656 18.6790933 -4.8019362 0.5484549 -0.8307673 -0.0949891
13.5441711 19.0601093 -3.7146918 0.7151650 -0.6977382 -0.0412374
13.8600608 18.9506619 -2.7233065 0.6512271 -0.4617484 -0.6022389
14.8011018 18.3972666 -1.8376553 0.7311353 -0.5666557 -0.3799243
14.9556676 18.4010775 -0.8308543 0.7500073 -0.6594225 0.0514880
12.9103153 19.9708970 0.5821173 0.5805617 -0.5824155 0.5689818
13.0423535 19.9932829 1.6161678 0.8213328 -0.5703461 0.0108542
13.5849872 19.7225298 2.5666148 0.5335487 -0.4227549 -0.7325327
14.6476910 19.0789340 3.3971069 0.5285070 -0.6675308 -0.5244835
14.7316764 19.1344272 4.4300335 0.9268730 -0.3669835 0.0789281
14.2291440 19.6109460 5.6032061 0.9366425 -0.2058078 -0.2834500
15.5118241 18.8059837 6.3496416 0.5468057 -0.6925700 -0.4704788
15.7668955 18.7381515 7.3369921 0.7211546 -0.6713571 0.1709261
14.6783517 19.6388436 8.6822235 0.6992541 -0.5854476 0.4102376
14.7647978 19.6939080 9.7267266 0.6124459 -0.7904351 -0.0110601
15.1078998 19.5635050 10.6986761 0.6699587 -0.7203887 0.1794308
14.5426424 20.0907786 11.9389454 0.2387172 -0.4649499 0.8525466
13.0157131 21.3176078 13.4931065 0.6704541 -0.6912933 0.2694528
7.8676943 25.1803610 16.2456611 0.7798836 -0.5891350 -0.2114272
8.4649701 24.8729731 17.2065925 0.8019027 -0.5956723 -0.0461145
8.2395238 25.1645163 18.4401797 0.4716479 -0.2913611 0.8322601
6.3986785 26.6368793 20.2530497 0.7918378 -0.6084476 0.0527679
6.2431308 26.8811141 21.4960025 0.6636899 -0.5419780 0.5155343
-4.0432420 28.0173940 -20.0931545 0.1973426 -0.5991170 -0.7759605
-3.1447634 27.5318425 -18.9344054 0.4398307 -0.7684517 -0.4647912
-2.6290465 27.3052279 -17.7873994 0.5500132 -0.8009494 -0.2365702
-2.5857952 27.3998739 -16.6397223 0.4798820 -0.8639516 -0.1526460
3.7504111 23.5555048 -12.3555409 0.0536305 -0.9131601 -0.4040575
3.6638335 23.7342258 -11.2465765 0.0696621 -0.9925498 -0.0999605
11.0213545 19.1312279 -7.5575304 0.3050968 -0.8892602 -0.3407818
11.3815949 18.9951893 -6.5504017 0.2826709 -0.8039061 -0.5232898
12.6275990 18.2447324 -5.6567465 0.2822982 -0.7972721 -0.5335400
12.8917552 18.1735850 -4.6535782 0.4627343 -0.8859602 -0.0308469
12.7615443 18.3764396 -3.5957661 0.6248432 -0.5937943 -0.5069312
13.6016394 17.9041631 -2.6814022 0.5900844 -0.5660470 -0.5756658
14.0715966 17.6885870 -1.7200761 0.5434956 -0.8361930 -0.0734426
14.0115315 17.8426293 -0.6726835 0.3859247 -0.8376853 0.3864525
12.9132312 18.7236657 0.5707420 0.9220310 -0.2798278 0.2674980
12.8101494 18.9099829 1.6461822 0.9208137 -0.3539062 0.1638675
12.8739672 18.9797324 2.6928736 0.6381030 -0.4629042 -0.6152595
14.0580321 18.2620739 3.5004062 0.5844207 -0.6603829 -0.4715368
14.3219170 18.1901266 4.4944683 0.7548413 -0.6550423 -0.0336783
13.8484255 18.6380406 5.6604616 0.7608084 -0.6412403 -0.0999068
14.5508624 18.2566482 6.5498664 0.4656150 -0.8032176 -0.3715430
14.8439696 18.1636702 7.5331496 0.5291036 -0.8288652 0.1817468
13.9734931 18.8950412 8.8247971 0.4779578 -0.6753339 0.5616765
13.8502234 19.0983533 9.9304993 0.4543525 -0.8899103 -0.0402926
14.2106512 18.9584149 10.9027259 0.4434052 -0.8473982 0.2920755
12.2191344 20.4929227 12.5740631 0.5902511 -0.7646004 0.2588240
12.0468867 20.7347268 13.7278383 0.3110606 -0.6714511 0.6726029
7.6795038 23.9744452 16.2324588 0.8330506 -0.5097399 -0.2149230
7.8073992 24.0078798 17.3461889 0.7659478 -0.6211221 0.1659256
7.3509553 24.4602445 18.6605792 0.3195812 -0.3277180 0.8890831
5.6893992 25.7792336 20.4132657 0.8661448 -0.4883609 0.1062868
2.5829155 28.1415143 22.7304210 0.2392580 -0.5327268 0.8117621
-4.2884697 26.9191832 -18.8612447 0.3524291 -0.7962022 -0.4917884
-3.7172725 26.6600044 -17.7083451 0.4781944 -0.7888497 -0.3860652
-3.3256296 26.5203028 -16.5601146 0.6481996 -0.7613571 -0.0131402
-3.4797436 26.7463012 -15.4020950 0.5044503 -0.8533090 -0.1318849
1.1171723 23.8995638 -13.2860813 0.8100214 0.2648277 -0.5231937
1.8015046 23.5574790 -12.2020114 0.2342378 -0.4757229 -0.8478327
1.8068661 23.6726493 -11.0841937 0.2895488 -0.7896628 -0.5409198
9.8874262 18.6631040 -7.4162718 0.2667723 -0.6693280 -0.6934209
10.6014135 18.2894980 -6.4423951 0.4369517 -0.7141738 -0.5468355
11.3419538 17.8966357 -5.4827730 0.2957742 -0.8220955 -0.4864943
11.5945891 17.8354873 -4.4694109 0.3978668 -0.8715696 -0.2864759
12.1839430 17.5440151 -3.5062916 0.3731136 -0.8138455 -0.4454680
12.9210698 17.1504752 -2.5745174 0.4307851 -0.7602212 -0.4863002
13.1175661 17.1263572 -1.5656755 0.3124798 -0.9392832 0.1417865
12.4646645 17.6854270 -0.4095853 0.6552547 -0.7385054 0.1589057
12.5668321 17.7269506 0.6238593 0.7708801 -0.6332857 0.0685059
12.5664438 17.8392501 1.6784912 0.7310069 -0.6054746 0.3146896
11.7498885 18.5150038 2.9036243 0.3113763 -0.9001774 -0.3045085
13.2756396 17.5743078 3.6450810 0.3836014 -0.7602236 -0.5243186
13.5515013 17.4957017 4.6401966 0.6384201 -0.7603943 0.1192484
13.1305971 17.8998552 5.7972092 0.5171717 -0.8558814 -0.0006434
13.5777829 17.7025634 6.7526810 0.2605265 -0.9057135 -0.3343786
13.8158709 17.6500548 7.7558740 0.2993719 -0.9210911 0.2489333
12.8528513 18.4339871 9.0781025 0.4313496 -0.8151870 0.3865330
12.8692634 18.5371292 10.1522022 0.3663997 -0.8895119 0.2729833
12.2791493 19.0644165 11.4040259 0.0486833 -0.7057506 0.7067857
11.2733184 19.8843437 12.7958142 0.1911222 -0.8618519 0.4697697
6.0655241 23.6524796 15.5107909 0.4234946 -0.9002699 -0.1008289
7.0143138 23.1100231 16.3720698 0.5996717 -0.7896456 -0.1298218
7.1155430 23.1618731 17.4968144 0.6169846 -0.7674834 0.1740667
5.1267749 24.6860646 19.3356465 0.6251558 -0.7358300 0.2602585
5.3156884 24.6787631 20.4550897 0.6935613 -0.6278469 0.3532434
-5.6386463 26.4267002 -18.7878369 0.0499465 -0.8079625 -0.5871133
2.5362609 21.5171546 -14.3977666 0.9358000 0.3425637 -0.0832374
2.3059869 21.7842675 -13.2875367 0.9600990 0.2095424 0.1852079
1.9894069 22.1093676 -12.1647009 0.9877291 0.0847702 0.1311687
1.5842396 22.4942355 -11.0265477 0.9217477 -0.2777461 -0.2706256
8.9991108 18.0144510 -7.3002636 0.4879467 -0.4826663 -0.7272835
9.7964861 17.5920181 -6.3314380 0.5265417 -0.6592865 -0.5367450
10.3013678 17.3641174 -5.3389271 0.4587480 -0.8330282 -0.3092156
10.5002996 17.3406807 -4.3122342 0.4282187 -0.8756686 -0.2232335
11.1370347 17.0231186 -3.3492522 0.2527995 -0.9007055 -0.3533016
11.4585275 16.9166296 -2.3472260 0.1110326 -0.9916848 -0.0650620
11.3951497 17.0691155 -1.2852559 0.3566690 -0.9341822 -0.0095294
11.6546226 17.0042167 -0.2749332 0.4686693 -0.8785116 -0.0925553
11.8479557 16.9838159 0.7456278 0.5603516 -0.8234039 0.0895100
11.5493791 17.2963379 1.8612178 0.2176271 -0.8232659 0.5242821
10.7501257 17.9492971 3.0886744 -0.0198895 -0.9950807 -0.0970510
12.0073133 17.2078687 3.8939950 0.0637278 -0.8727259 -0.4840333
12.4962530 16.9866096 4.8498546 0.2383985 -0.9658748 0.1012523
12.0953829 17.3707939 6.0084862 0.1858518 -0.9691699 0.1617675
12.1655136 17.4348385 7.0630235 0.1155832 -0.9930489 0.0222366
12.3558201 17.4169622 8.0887292 0.1809896 -0.9101026 0.3727681
11.7136385 17.9688248 9.3357359 0.3018764 -0.8951055 0.3281108
11.5818837 18.1725257 10.4582112 0.2635561 -0.8498152 0.4564563
10.0214379 19.3578561 11.9974575 -0.0173284 -0.7241779 0.6893954
6.6214201 21.8120861 14.1208523 0.4369744 -0.6981385 0.5671472
5.2617628 22.8687110 15.6901542 0.3952365 -0.9172706 0.0490186
6.0158271 22.4704077 16.6176999 0.4735869 -0.8584043 -0.1971228
5.9579963 22.6318723 17.8005600 0.3176011 -0.8361439 0.4472056
4.2137856 23.9610669 19.5620182 0.3973224 -0.8874442 0.2336188
3.9455114 24.2713382 20.8466373 0.2272240 -0.7933986 0.5647016
2.8836856 19.8802685 -15.4435640 0.8618833 0.2993243 -0.4093435
2.8850927 19.9910484 -14.3547758 0.9568648 0.2501934 0.1476925
2.4645770 20.3763590 -13.2434082 0.9485806 0.2066902 0.2397375
2.1748107 20.6777496 -12.1277872 0.9389746 0.0955954 0.3304364
1.9191582 20.9578266 -11.0053821 0.9261882 0.0071293 0.3769941
8.6128092 17.0258622 -7.2364161 0.6757443 -0.2726101 -0.6848747
9.1606700 16.7746432 -6.2396534 0.7222657 -0.5755975 -0.3834316
9.4731518 16.6775040 -5.2212595 0.7014317 -0.7010857 -0.1283449
9.5341456 16.7457755 -4.1720947 0.4847979 -0.8705493 0.0843503
9.4488466 16.9108041 -3.0998005 0.2234455 -0.9719963 0.0727687
9.5557970 16.9492742 -2.0521098 -0.0077688 -0.9999598 0.0044811
10.1585172 16.6596641 -1.0845645 0.1845374 -0.9546143 -0.2337893
10.5851910 16.4858756 -0.0951761 0.1566658 -0.9859780 0.0574730
5.4351333 20.0148719 1.9159555 0.9907600 -0.0181665 -0.1344043
5.3675685 20.1745075 3.0472145 0.0562994 -0.9940483 -0.0932653
10.7836659 16.9017176 5.2069697 -0.0007974 -0.9993248 0.0367317
10.4594517 17.2292328 6.3606069 0.1084041 -0.9928583 0.0498085
10.6032647 17.2440397 7.4094639 0.1868184 -0.9823933 0.0015164
10.7035725 17.2881029 8.4699005 0.3791955 -0.9082356 0.1769715
10.4854921 17.5464109 9.6163999 0.3663600 -0.8683887 0.3341879
9.9053683 18.0493847 10.8709508 0.3906862 -0.6834623 0.6166390
5.5000588 21.1344232 13.2382540 0.2345816 -0.9666292 0.1029535
5.3673953 21.3423583 14.4309231 0.0624357 -0.6468700 0.7600401
4.1122821 22.3105688 15.9754896 -0.0883187 -0.9948746 0.0492381
4.7459013 22.0016355 16.9490018 0.0610604 -0.9610409 0.2695776
2.7026643 23.5090517 18.7931090 -0.0617526 -0.9740860 0.2175846
2.8276272 23.5469288 19.9483090 -0.0728825 -0.9077054 0.4132300
2.6699808 18.6239854 -16.4620266 0.7361402 0.1736896 -0.6541632
3.2277734 18.3781104 -15.3936598 0.9591381 0.1495255 -0.2402006
3.2961994 18.4434578 -14.3148377 0.9866794 0.1625267 0.0069877
3.0673759 18.6987881 -13.2203260 0.9378900 0.2251588 0.2639428
2.3006266 19.2988679 -12.0880752 0.8935966 0.1309152 0.4293557
1.5580294 19.8853124 -10.9392271 0.9283685 -0.0272828 0.3706584
8.2406215 16.0292022 -7.1740634 0.7496490 -0.3742160 -0.5458834
8.6506381 15.8712982 -6.1621789 0.8048858 -0.5349456 -0.2568893
8.7384414 15.9211655 -5.1150952 0.7903130 -0.6126909 -0.0039012
8.5069784 16.1778584 -4.0236639 0.3947223 -0.7952810 0.4601331
7.8924350 16.6837082 -2.8691784 0.2311089 -0.9136115 0.3345185
4.4626197 19.0191829 -1.2655893 0.9418667 0.0452716 -0.3329227
4.7577194 18.9394252 -0.2010121 0.9568217 0.0456229 -0.2870727
4.9113610 18.9515589 0.8857230 0.9827533 -0.0037626 -0.1848831
4.8796431 19.0846525 2.0069502 0.9992098 -0.0352772 0.0183087
4.8196587 19.2366295 3.1377788 0.9956388 -0.0921666 0.0144460
4.5456347 19.5291483 4.3170310 0.4487921 -0.8157085 -0.3649728
8.8725531 17.0268618 6.7004650 0.1236573 -0.9201265 -0.3715859
9.3286587 16.8369517 7.6846234 0.3684585 -0.9121584 -0.1794586
9.5457641 16.8040758 8.7238731 0.5683081 -0.8214516 -0.0473629
9.4715772 16.9635189 9.8394635 0.6570258 -0.6743616 0.3369772
2.9849753 21.3660755 12.7294870 -0.2231017 -0.9346610 0.2768292
1.5087270 22.4623311 14.3230019 0.4747122 -0.7665019 0.4325774
1.2783304 22.7351614 15.5812752 0.2084519 -0.9064079 0.3673860
0.5634910 23.3308988 16.9969237 0.9037364 -0.1555693 0.3988216
2.9242386 17.1921495 -16.4036015 0.7977762 0.0849056 -0.5969458
3.3057985 17.0601569 -15.3372781 0.9682656 0.0189825 -0.2492015
3.4185306 17.0961077 -14.2650448 0.9999601 -0.0080419 -0.0038991
3.2791612 17.2902755 -13.1799655 0.9805829 0.0074438 0.1959636
2.8646456 17.6578555 -12.0734652 0.8517191 0.0975877 0.5148313
1.2205147 18.8000640 -10.8746963 0.8802704 0.0763234 0.4682934
6.9560572 15.5060257 -8.0800841 0.5010181 -0.1460066 -0.8530316
7.7677208 15.0976189 -7.1011870 0.7425204 -0.4238485 -0.5186674
8.0771873 15.0062964 -6.0774118 0.8065135 -0.5763180 -0.1318846
7.9893068 15.1669528 -5.0070520 0.7195056 -0.6361746 0.2785561
7.3832796 15.6575585 -3.8621575 0.4475831 -0.7370344 0.5064086
4.0204471 17.9052436 -2.3047291 0.9394131 -0.0146645 -0.3424732
4.0715482 17.9824700 -1.2031239 0.9113296 -0.0042221 -0.4116558
4.7643873 17.6500059 -0.2043372 0.9261832 0.0674451 -0.3709931
5.1682979 17.5013607 0.8343219 0.9466230 0.1885069 -0.2614767
5.2438678 17.5626418 1.9287316 0.9726284 0.2322301 0.0079548
5.1785371 17.7145362 3.0523968 0.9845030 0.1574306 0.0772626
4.7637070 18.0915427 4.2521534 0.7837780 -0.6145151 -0.0897950
4.2607732 18.5264390 5.4826318 0.7719473 -0.4592935 -0.4394848
7.3903520 16.7298068 7.0150627 0.1881393 -0.6938078 -0.6951506
8.3140196 16.2419347 7.8955854 0.4343741 -0.7664239 -0.4731950
8.7734677 16.0532471 8.8790069 0.6716771 -0.7157811 -0.1910688
8.8524899 16.1107863 9.9573267 0.8079601 -0.5243915 0.2687268
7.7562549 16.9322057 11.3612114 0.3752763 -0.0155626 0.9267823
0.2174359 21.9492803 14.6324226 0.7156008 -0.5098020 0.4775118
0.5486336 21.8519969 15.7326548 0.9799048 -0.1820668 0.0814761
0.6803578 21.8846410 16.8909317 0.9584827 0.1618175 0.2347892
0.6459679 22.0260140 18.1029035 0.8946428 0.3590187 0.2659322
2.9903559 15.8913075 -16.3424771 0.8222099 -0.0671538 -0.5652090
3.2873039 15.8131629 -15.2787373 0.9851467 -0.1087168 -0.1329160
3.3146446 15.9005949 -14.2073172 0.9905295 -0.1235369 0.0599168
3.1465841 16.1086469 -13.1239914 0.9542398 -0.1170410 0.2751870
2.6593457 16.5142205 -12.0161236 0.8792355 -0.1035559 0.4649959
1.4070126 17.3937041 -10.8449524 0.8532165 0.1030912 0.5112668
6.6847000 14.4410346 -8.0266315 0.6887481 -0.2397433 -0.6842143
7.2682070 14.1816104 -7.0254991 0.7705244 -0.4620332 -0.4391099
7.4660617 14.1614715 -5.9882718 0.8295698 -0.5567293 -0.0432012
7.2660885 14.3893060 -4.9021474 0.6296495 -0.6150908 0.4745575
6.0368466 15.2605414 -3.6705969 0.3845072 -0.6081796 0.6944579
3.6128848 16.8816074 -2.2393276 0.9263862 -0.0219202 -0.3759364
4.2684469 16.5788076 -1.2312344 0.8437319 -0.0248537 -0.5361891
4.9778956 16.2412729 -0.2415562 0.8715774 0.1597763 -0.4634916
5.5023990 16.0188950 0.7695872 0.9235267 0.2229915 -0.3120469
5.6961437 16.0039587 1.8344868 0.9636421 0.2388733 -0.1197223
5.5939152 16.1755030 2.9562894 0.9581313 0.2808082 0.0559565
5.1295121 16.5761791 4.1573974 0.9806239 0.0381551 0.1921483
4.1919333 17.2772237 5.4725181 0.6919573 -0.4430220 -0.5700233
4.9091809 16.9326921 6.4392652 0.3911930 -0.3663751 -0.8442377
6.3704350 16.1152898 7.2207675 0.2045357 -0.5480184 -0.8110740
7.4006412 15.5691099 8.0814042 0.3488632 -0.6585893 -0.6667493
8.0332512 15.2741422 9.0257133 0.6671719 -0.6696927 -0.3261799
8.1975206 15.2766349 10.0845312 0.7184686 -0.6652508 0.2030867
7.7634320 15.6609484 11.3079706 0.6100590 -0.1133863 0.7842012
0.1261571 20.6500274 14.5986646 0.8538216 -0.3455815 -0.3893099
0.7336158 20.3772800 15.6133774 0.9199580 0.0617000 -0.3871310
1.0562747 20.2862631 16.7064018 0.9650073 0.1584071 -0.2089693
1.1374781 20.3500028 17.8728553 0.9658396 0.2501290 -0.0677451
1.0993271 20.4907040 19.0803731 0.9341085 0.3291616 0.1381809
1.7660658 15.2759748 -17.3336884 0.4649901 -0.2028880 -0.8617544
2.8244145 14.7414718 -16.2775004 0.7698210 -0.3018023 -0.5623975
3.1268844 14.6611598 -15.2165906 0.9462271 -0.3015522 -0.1171343
3.0599229 14.8037077 -14.1441872 0.9550807 -0.2709541 0.1200198
2.8346365 15.0424413 -13.0597760 0.9090017 -0.2811148 0.3077179
2.3844144 15.4181429 -11.9550057 0.8599009 -0.2401743 0.4504295
2.0127240 15.7473376 -10.8435886 0.9751054 0.2088671 0.0744582
6.2680553 13.4682127 -7.9593880 0.7785871 -0.3237367 -0.5375841
6.7381093 13.2827135 -6.9465652 0.7918546 -0.5771969 -0.1995246
6.8231109 13.3320126 -5.8954120 0.7999378 -0.5984739 0.0439146
6.4726709 13.6480294 -4.7884133 0.6762823 -0.5796830 0.4545436
4.6709623 14.8547984 -3.4762430 0.5592526 -0.3703308 0.7416817
3.5472991 15.6489009 -2.2232527 0.9031966 -0.1300369 -0.4090554
4.3070490 15.2871591 -1.2349826 0.8598603 -0.0253506 -0.5098997
5.1332948 14.8833526 -0.2692231 0.8188499 0.2009761 -0.5376741
5.9044820 14.5122714 0.6931277 0.8834186 0.3245121 -0.3380288
6.2286579 14.4162228 1.7256759 0.9416952 0.3123410 -0.1251133
6.1168587 14.5896474 2.8395851 0.9455792 0.3126027 0.0903298
5.6222417 15.0008481 4.0370790 0.8698612 0.2872289 0.4010498
4.1601108 16.0138357 5.4546619 0.9692356 -0.1740193 0.1740677
4.1960424 16.0986985 6.5698118 0.5674893 -0.3668955 -0.7371184
5.4685474 15.4139301 7.3985181 0.3389017 -0.4744812 -0.8124120
6.5771092 14.8292678 8.2449744 0.3909360 -0.6228057 -0.6777036
7.2375927 14.5226310 9.1862747 0.6219527 -0.6866325 -0.3764449
7.5033305 14.4619569 10.2219153 0.7335004 -0.6796890 0.0003350
7.2739318 14.7112881 11.3914991 0.7651286 -0.3232078 0.5568797
-0.1982688 19.5059647 14.6316893 0.8148242 -0.1103253 -0.5691132
0.6126460 19.1101822 15.5850967 0.8172039 -0.0585040 -0.5733717
1.1639796 18.8765474 16.6047835 0.9112586 0.0432981 -0.4095522
1.4571219 18.8049467 17.6983006 0.9602672 0.2148733 -0.1780911
1.5092301 18.8853102 18.8680502 0.9781731 0.2065067 0.0230729
1.3135347 19.1226357 20.1238213 0.9237536 0.2404989 0.2980598
1.2970847 14.3015533 -17.2628393 0.3464180 -0.2664882 -0.8994324
2.3596132 13.7743517 -16.2069808 0.7220140 -0.4513482 -0.5243859
2.7344976 13.6526576 -15.1480080 0.8719283 -0.4707687 -0.1346026
2.6772904 13.7867783 -14.0763185 0.8887463 -0.4238783 0.1745200
2.4727470 14.0087845 -12.9932823 0.8601787 -0.4005997 0.3156144
2.0440904 14.3647280 -11.8902695 0.7977742 -0.3794290 0.4686043
1.5800120 14.7428367 -10.7734688 0.9165720 -0.3998343 0.0053181
5.1163400 12.8356196 -8.8877986 0.5830205 -0.1986818 -0.7877897
5.8046197 12.5237340 -7.8876730 0.7699358 -0.4404887 -0.4617017
6.1061012 12.4426574 -6.8568497 0.8115344 -0.5694521 -0.1309056
6.0906151 12.5515354 -5.7921750 0.7537441 -0.6375667 0.1593066
5.5167674 12.9963029 -4.6543072 0.5732442 -0.5428117 0.6137968
3.1946524 14.4946753 -3.2668549 0.9972050 -0.0614351 -0.0425185
3.0468080 14.6869563 -2.1444724 0.8632416 -0.0603548 -0.5011699
4.2784062 14.0470294 -1.2283883 0.7174824 0.1633314 -0.6771572
5.6944861 13.2936054 -0.3633813 0.7357285 0.2767619 -0.6181476
6.4406906 12.9435305 0.5934605 0.8667540 0.2763814 -0.4151516
6.7573350 12.8529076 1.6177621 0.9100800 0.3835731 -0.1569270
6.6258598 13.0342030 2.7258474 0.9352300 0.3149066 0.1617983
6.1795667 13.4075746 3.9039485 0.8498248 0.2751972 0.4495156
4.5681892 14.4919634 5.3430637 0.9057468 0.1833339 0.3821145
3.7421730 15.1004450 6.6422674 0.9062758 -0.2628457 -0.3310232
4.6727118 14.6372587 7.5512224 0.5418906 -0.5279191 -0.6539541
5.7388916 14.0896148 8.4118602 0.4620113 -0.5465755 -0.6984274
6.4207471 13.7758888 9.3519381 0.6189873 -0.6958513 -0.3642056
6.7700220 13.6653970 10.3694043 0.7612844 -0.6439830 -0.0757098
6.7845711 13.7604045 11.4749433 0.7720519 -0.5389328 0.3368787
-0.4594109 18.3263323 14.6468757 0.8441191 0.0681120 -0.5318117
0.3653074 17.9291190 15.5944142 0.7829278 0.1134114 -0.6116878
1.1881723 17.5318125 16.5293007 0.8532441 0.1695561 -0.4931787
1.7666927 17.2844652 17.5279247 0.9344617 0.2710561 -0.2308896
1.8385196 17.3503757 18.6831539 0.9713009 0.2359716 0.0298665
1.6310768 17.5898453 19.9343445 0.9601297 0.1733234 0.2193397
0.9495345 18.1248184 21.3576476 0.7449547 0.2956614 0.5980191
0.6336530 13.4392440 -17.1898754 0.2586132 -0.3589414 -0.8968167
1.6939750 12.9232316 -16.1324005 0.6545256 -0.5642068 -0.5032563
2.1549296 12.7539626 -15.0739562 0.8056434 -0.5742360 -0.1455737
2.1492362 12.8557518 -14.0028488 0.8131046 -0.5617603 0.1525984
1.9366528 13.0784227 -12.9184380 0.7800426 -0.5166075 0.3530585
1.4518321 13.4606594 -11.8110526 0.8739062 -0.4512947 0.1806129
0.9495594 13.8542418 -10.6900501 0.9022095 -0.3626448 -0.2334670
4.7537177 11.8255547 -8.8249262 0.7382721 -0.2639621 -0.6207079
5.3375875 11.5806790 -7.8155975 0.8344243 -0.3850814 -0.3942696
5.4654718 11.6032205 -6.7661394 0.7898900 -0.5969957 0.1402495
5.2721370 11.8150164 -5.6789260 0.6526579 -0.6749751 0.3441601
4.3841475 12.4371963 -4.4979872 0.4980682 -0.6466294 0.5777530
2.8341649 13.4523278 -3.2074692 0.9735022 -0.2035145 0.1042845
3.1572847 13.3623319 -2.1538745 0.6868985 0.1353451 -0.7140393
5.0331801 12.3519846 -1.3425373 0.6599032 0.2706830 -0.7008983
6.0620658 11.8412149 -0.4257688 0.7299632 0.2550233 -0.6341268
7.0216700 11.3700674 0.4861301 0.7891126 0.4021487 -0.4643035
7.5369074 11.1619920 1.4639818 0.7990094 0.5499608 -0.2431606
7.4808670 11.2938518 2.5454371 0.7938221 0.5815788 0.1777995
6.7627892 11.8213955 3.7659059 0.8198988 0.3709081 0.4361114
5.4703395 12.6940182 5.1264536 0.7146602 0.2876300 0.6375969
3.5329211 13.9555877 6.6601053 0.9163643 -0.1977894 -0.3480745
4.0837205 13.7285545 7.6554668 0.7344979 -0.2829178 -0.6168228
5.0251905 13.2661312 8.5481816 0.5650550 -0.5470412 -0.6176234
5.6962251 12.9649950 9.4939227 0.7058813 -0.6173545 -0.3472824
6.0597971 12.8482047 10.5105636 0.7570232 -0.6367589 -0.1464718
6.1423621 12.9006484 11.6001597 0.8171702 -0.4657248 0.3396075
-0.0861334 16.7680349 14.4822601 0.8252534 0.2456098 -0.5085593
0.6635809 16.4228273 15.4435993 0.7923856 0.2058090 -0.5742541
1.4824396 16.0346231 16.3722520 0.8218456 0.1315828 -0.5543066
2.0566202 15.7937996 17.3647053 0.9709132 0.1055945 -0.2148892
2.1200971 15.8628486 18.5148235 0.9930964 0.0683337 0.0953421
1.8955922 16.1075439 19.7637605 0.9753727 0.0280402 0.2187735
1.5176906 16.4465949 21.0739878 0.9198618 0.1512616 0.3619037
0.9875048 12.0904948 -16.0567375 0.5538108 -0.5919944 -0.5855222
1.4679758 11.9134762 -14.9965458 0.7255587 -0.6651986 -0.1762823
1.4442184 12.0238919 -13.9223337 0.7250496 -0.6607860 0.1940745
1.1731293 12.2760945 -12.8324233 0.6894575 -0.6270374 0.3625914
0.5869476 12.7095300 -11.7158536 0.6933174 -0.7183313 0.0575429
4.4744041 10.7691311 -8.7693151 0.8293298 -0.2128596 -0.5166264
4.9122886 10.6128172 -7.7475206 0.8775591 -0.4770396 -0.0482008
4.8167641 10.7638571 -6.6744874 0.8114167 -0.5465750 0.2070234
4.3583950 11.1250578 -5.5545508 0.6069934 -0.6075381 0.5123050
2.9820472 12.0186917 -4.3077846 0.7039804 -0.6312320 0.3255115
2.6278882 12.3224614 -3.1688730 0.7694831 0.0165463 -0.6384528
4.2055211 11.5056095 -2.2987531 0.5757389 0.2145498 -0.7889823
5.5362685 10.8298395 -1.4179420 0.6797461 0.2271692 -0.6973803
6.5815814 10.3182399 -0.5130236 0.6878084 0.2664441 -0.6752238
7.7168967 9.7525992 0.3590779 0.6710422 0.3396210 -0.6590599
8.6714816 9.2908048 1.2453059 0.8840303 0.3756221 -0.2782058
8.7949078 9.3138193 2.2766432 0.9245651 0.3722507 0.0812945
8.4003447 9.6403798 3.4140026 0.8661438 0.4077191 0.2890676
6.3664621 10.9298340 4.9117088 0.7186626 0.3156966 0.6195642
3.9896933 12.4247283 6.5295336 0.7754763 0.1157904 0.6206682
3.5895488 12.7608311 7.7375362 0.9828889 -0.1841047 0.0059029
4.3600561 12.4079074 8.6725207 0.7685567 -0.5092133 -0.3873272
5.0124100 12.1236547 9.6253949 0.7294787 -0.5697374 -0.3784972
5.3679426 12.0140313 10.6466648 0.7796676 -0.6038425 -0.1658089
5.4902520 12.0421818 11.7278953 0.7895288 -0.5803250 0.1996675
5.0298407 12.4160293 12.9751407 0.6069485 -0.0191982 0.7945092
0.8920732 14.9754300 15.3140885 0.8194157 0.0288968 -0.5724709
1.5336909 14.6993369 16.2898634 0.8520079 -0.0192337 -0.5231755
2.0445917 14.5002769 17.2971783 0.9602610 -0.1276904 -0.2481814
2.1128360 14.5647667 18.4410812 0.9909506 -0.0916991 0.0980212
1.8659687 14.8178004 19.6925454 0.9771902 -0.0639393 0.2025117
1.6411160 15.0584428 20.9451488 0.9740789 0.0263335 0.2246704
0.4404294 15.8849132 22.5524263 0.4744928 0.1799673 0.8616661
0.1686252 11.3148709 -15.9784152 0.3707428 -0.6987104 -0.6118444
0.7207722 11.1013978 -14.9170551 0.6263595 -0.7519905 -0.2053877
0.6006539 11.2639773 -13.8360592 0.6078429 -0.7744265 0.1754725
0.2178728 11.5744314 -12.7367050 0.4692651 -0.8800896 0.0723363
-0.7388949 12.2083767 -11.5933217 0.4530906 -0.8910325 -0.0277482
3.5509692 9.9853541 -9.7232319 0.6810433 -0.0051328 -0.7322251
4.3212887 9.6448357 -8.7247644 0.8546145 -0.1893862 -0.4834945
4.4851761 9.6461389 -7.6792724 0.9186246 -0.3949022 -0.0134525
4.1256721 9.9437800 -6.5782530 0.7781496 -0.5356107 0.3280310
3.3850801 10.4583990 -5.4231275 0.7860748 -0.3495541 0.5098022
2.3253739 11.1557779 -4.2106354 0.9177459 -0.3970689 0.0088740
2.9177252 10.9156766 -3.1971989 0.6695779 0.0705310 -0.7393855
4.5555574 10.0793643 -2.3429422 0.5919276 0.1746618 -0.7868386
5.8482724 9.4374034 -1.4639284 0.6541120 0.1871527 -0.7328788
7.0899428 8.8226688 -0.5984143 0.6217044 0.2863311 -0.7290392
8.2855370 8.2324411 0.2541307 0.7155090 0.2591721 -0.6487501
9.0468163 7.8893036 1.1661542 0.8721498 0.2382806 -0.4272905
9.2677128 7.8552507 2.1708261 0.9796342 0.2000412 -0.0173321
9.0691792 8.0621692 3.2594780 0.9375321 0.2433327 0.2486419
8.3738613 8.5556855 4.4609801 0.7802751 0.3885626 0.4900917
5.1801366 10.4910749 6.2359882 0.6397344 0.2583866 0.7238620
3.2654370 11.6938597 7.7800079 0.9931492 -0.0422338 0.1089543
3.7751529 11.4983354 8.7772454 0.9320581 -0.2955939 -0.2095039
4.3356936 11.2727777 9.7548929 0.7653134 -0.5417049 -0.3476367
4.6879696 11.1673327 10.7794376 0.8304848 -0.5220885 -0.1942128
4.8607256 11.1658537 11.8492810 0.8919657 -0.4278806 0.1459977
4.5905626 11.4220724 13.0443081 0.8141716 -0.2618584 0.5182227
0.7050999 13.7857915 15.3069947 0.9636771 -0.2334054 -0.1298011
1.3658697 13.5035241 16.2744471 0.8114313 -0.2287851 -0.5378072
1.8444097 13.3269029 17.2891309 0.9369185 -0.2677458 -0.2247128
1.9289467 13.3803939 18.4250555 0.9774176 -0.2064795 0.0449570
1.7584569 13.5835797 19.6479245 0.9854904 -0.1078093 0.1310945
1.6589523 13.7457102 20.8534980 0.9906632 0.0009843 0.1363283
1.0808351 14.1898387 22.2342562 0.6973165 0.0585969 0.7143641
-1.1751148 10.8188648 -15.8883169 0.0990684 -0.7979272 -0.5945566
-0.3724231 10.4726821 -14.8265506 0.4215033 -0.8883053 -0.1823421
-0.4668056 10.6185414 -13.7404013 0.2563461 -0.9237160 0.2846673
-1.6481432 11.3631389 -12.5953738 0.3893245 -0.8787061 0.2762281
3.5470123 8.7783658 -9.6876099 0.7726035 -0.1936365 -0.6046394
3.9569248 8.6435595 -8.6619419 0.8768439 -0.3452228 -0.3346131
2.2646547 9.8619116 -5.2744959 0.9022821 -0.3030458 0.3066760
1.9532318 10.1297139 -4.1490833 0.8867621 0.0201995 -0.4617845
3.3261250 9.4587217 -3.2416566 0.5205281 0.1348900 -0.8431223
4.9407528 8.6506669 -2.3923017 0.5600045 0.2218844 -0.7982244
6.3412906 7.9599771 -1.5378484 0.6136980 0.3340317 -0.7154003
7.6329195 7.3282415 -0.6894405 0.6665861 0.2926877 -0.6855632
8.6619000 6.8420054 0.1826655 0.8187238 0.1670637 -0.5493461
9.2336819 6.6112735 1.1216971 0.9232240 0.0574534 -0.3799429
9.4030983 6.6063364 2.1303850 0.9966556 0.0407804 -0.0708136
9.3084370 6.7502580 3.1924647 0.9836818 0.1123394 0.1405348
9.0440727 6.9904296 4.2956482 0.9278662 0.1957127 0.3174283
29.9307495 -4.7286827 0.7009297 0.7052339 0.3922721 -0.5905656
30.2392247 -4.8296102 1.4787680 0.9603670 -0.2708314 -0.0659205
29.5245436 -4.3505345 2.5009875 0.6023706 0.6372288 0.4807173
3.7967837 10.3384182 9.8494562 0.8285742 -0.4672155 -0.3085035
4.1656569 10.2256385 10.8706731 0.8762804 -0.3830414 -0.2922533
4.4683359 10.1502301 11.9059435 0.9423618 -0.3208890 -0.0947868
4.3563308 10.3112287 13.0556051 0.9017840 -0.1567915 0.4027431
0.2692423 12.7445579 15.3729486 0.9619547 -0.2408801 -0.1289181
0.9667122 12.4466895 16.3293270 0.7916769 -0.3551017 -0.4971423
1.4387949 12.2771148 17.3456091 0.8713008 -0.4083475 -0.2721899
1.5657593 12.3051705 18.4672522 0.9248349 -0.3766261 -0.0532279
1.5815608 12.3972361 19.6268961 0.9738612 -0.2271165 0.0035224
1.6311254 12.4701407 20.7782282 0.9817929 -0.1703226 0.0841012
1.2132306 12.8129105 22.0973391 0.7620031 -0.1867047 0.6200747
-2.3493184 10.3058299 -14.7076175 -0.1315936 -0.9509963 -0.2798022
-2.4840771 10.4718485 -13.6054961 0.0070854 -0.9916267 0.1289429
2.2666311 8.1818754 -10.6188653 0.6162647 -0.1788593 -0.7669597
3.1112316 7.8147210 -9.6185327 0.7323077 -0.5413420 -0.4131274
3.3296863 7.7864855 -8.5761532 0.7888328 -0.6111841 -0.0647822
5.7472382 7.0089080 -2.5026592 0.5634500 0.4035164 -0.7209012
7.2264025 6.2874370 -1.6722560 0.6808712 0.3286951 -0.6545029
8.1586774 5.8643283 -0.7776094 0.7578747 0.2621430 -0.5974169
8.8242256 5.5867403 0.1484232 0.8828175 0.1144902 -0.4555494
9.1625363 5.4886790 1.1246180 0.9544903 0.0007754 -0.2982409
9.3916280 5.4506104 2.1184213 0.9792582 0.1505502 -0.1356024
9.4299362 5.5178956 3.1495435 0.9788148 0.2030956 0.0259560
28.7860223 -5.1099026 0.0790753 0.3200294 0.2066104 -0.9246044
29.4665163 -5.4144364 0.7826638 0.6037884 -0.5728505 -0.5543302
29.8178838 -5.5371191 1.5518310 0.7719017 -0.6357413 -0.0008866
29.5876002 -5.3366796 2.4573811 0.5352963 -0.5346606 0.6539082
3.2950666 9.3812412 9.9345814 0.8802657 -0.4008827 -0.2538215
3.7689357 9.2121288 10.9289627 0.8367133 -0.3724941 -0.4014461
4.1682648 9.0841477 11.9375614 0.9336511 -0.3054159 -0.1871274
4.2156819 9.1526902 13.0407392 0.9594978 -0.1886943 0.2091851
3.0275900 9.9138289 14.5068848 0.5881222 0.1488377 0.7949589
0.4265136 11.4703487 16.4268480 0.9175115 -0.3790701 -0.1203268
0.9039880 11.3011125 17.4424504 0.7807600 -0.5462952 -0.3032746
1.0861286 11.2976255 18.5470733 0.8467579 -0.5112379 -0.1470947
1.2475166 11.3058290 19.6584644 0.9030335 -0.4208752 -0.0859919
1.2889741 11.3817841 20.8112129 0.8678766 -0.4358353 0.2384068
0.5961716 11.8732582 22.2255970 0.5698182 -0.3995948 0.7180747
0.7620311 7.6887685 -11.5489478 0.5081984 -0.0571493 -0.8593418
1.9404377 7.1528265 -10.5571445 0.7108952 -0.3571024 -0.6058926
2.4403203 6.9760193 -9.5310180 0.7149197 -0.6587491 -0.2343915
2.5459675 7.0085800 -8.4765214 0.7287512 -0.6847415 -0.0071238
8.4788305 4.5316193 -0.8320650 0.8496156 0.1636282 -0.5013772
8.9538719 4.3616653 0.1199139 0.9027703 0.1495398 -0.4032909
9.3764718 4.2195402 1.0754094 0.8913697 0.2547667 -0.3749053
9.8688691 4.0392181 2.0123538 0.8625152 0.3902210 -0.3221724
28.1795254 -5.7272436 0.1896067 0.3028295 -0.6266499 -0.7180558
28.5439376 -5.8537605 0.9660938 0.3917128 -0.8870053 -0.2445048
28.6124283 -5.8195534 1.8066164 0.2498924 -0.9625555 0.1050746
28.4209841 -5.6435165 2.7111880 0.2903186 -0.7410550 0.6054358
2.7229602 8.4612391 10.0373683 0.9778271 -0.2091134 -0.0112171
3.3398786 8.2173243 10.9957428 0.9283935 -0.2497198 -0.2751829
3.7821959 8.0683026 11.9926400 0.8728337 -0.4184646 -0.2510950
3.9239537 8.0836999 13.0686634 0.9359471 -0.3059494 0.1743500
3.3801787 8.4757630 14.3449204 0.8046834 -0.0411264 0.5922780
-0.3218912 10.6067677 16.5870055 0.6179514 -0.7784779 0.1100371
0.2004602 10.4163758 17.5917252 0.6609824 -0.6876871 -0.3003144
0.4777539 10.3606493 18.6682445 0.7113791 -0.6911118 -0.1276880
0.6592228 10.3577188 19.7744896 0.7199956 -0.6931357 0.0341958
0.5226531 10.5308412 20.9892834 0.6240611 -0.7074682 0.3317175
0.5625518 6.5856693 -11.4935239 0.5501612 -0.2951456 -0.7811605
1.3231405 6.2775494 -10.4752961 0.6169230 -0.6199550 -0.4848317
1.6551905 6.1918355 -9.4343668 0.7036978 -0.6900256 -0.1693345
25.4314886 -5.3544910 -0.9995798 0.6610836 0.2484516 -0.7079832
27.3223871 -6.2169540 0.3531717 0.3651025 -0.7146188 -0.5966743
27.3461792 -6.1590654 1.2102628 0.4099707 -0.9005547 -0.1446560
27.2992052 -6.0632424 2.0858607 0.3678355 -0.8808972 0.2978543
27.0274442 -5.8470056 3.0192235 0.3569186 -0.6101161 0.7073666
25.6559783 -5.0415529 4.2367289 0.7296013 0.2667036 0.6297231
2.8460624 7.2575368 11.0794366 0.8968449 -0.3507683 -0.2695011
3.2850204 7.1133248 12.0778656 0.8198204 -0.5085335 -0.2632265
3.4557350 7.1128924 13.1462917 0.8599257 -0.5071244 0.0579016
3.1855409 7.3498629 14.3428942 0.8445347 -0.2314653 0.4828923
-1.3593287 9.8927096 16.8337562 0.7545531 -0.6505827 -0.0859754
-0.7231467 9.6451059 17.8090882 0.6548881 -0.7542201 -0.0476829
-0.4088140 9.5708372 18.8784553 0.5173886 -0.8495844 -0.1025451
-0.3472127 9.6332526 20.0286679 0.4109408 -0.8778580 0.2459531
-0.8725198 10.0142846 21.3812955 0.2706629 -0.7889126 0.5516870
-0.1480021 5.7477814 -11.4073656 0.5089403 -0.5294333 -0.6787342
0.5013452 5.5027571 -10.3790624 0.5746123 -0.7035423 -0.4181493
24.7824487 -6.0517199 -1.7621707 0.5678505 0.0867492 -0.8185477
26.6424833 -6.8792650 -0.3840289 0.7796815 -0.0598810 -0.6233066
26.6069097 -6.7915205 0.4865179 0.7561959 -0.6286392 -0.1816053
26.4957550 -6.6640547 1.3770725 0.6445810 -0.7591346 0.0907198
26.5380322 -6.6164316 2.2368959 0.8371443 -0.5349148 0.1142606
26.5089072 -6.5312767 3.1157048 0.9675037 -0.2073047 0.1447804
26.0316684 -6.2108631 4.1100797 0.7124712 0.1484716 0.6858141
2.2410700 6.3550447 11.1920632 0.8397941 -0.5421656 -0.0283270
2.6517584 6.2287352 12.1998477 0.7870338 -0.5862101 -0.1921862
2.8708422 6.2029821 13.2566017 0.8032488 -0.5956226 -0.0050092
2.7015759 6.3820412 14.4250980 0.7995027 -0.4531328 0.3942919
1.4587065 7.1289190 15.9225932 0.5336878 -0.0661319 0.8430919
-2.0130463 9.0575494 18.1394935 0.2070059 -0.9750724 0.0798894
-1.7369083 9.0056861 19.2294621 0.1923537 -0.9704409 0.1457547
-2.1893034 9.3403643 20.5579907 -0.0113113 -0.8916149 0.4526532
-1.0738337 5.0116630 -11.3079033 0.3741788 -0.7861643 -0.4918698
24.5752072 -6.9084470 -1.7326585 0.5909045 -0.1703451 -0.7885521
26.3754832 -7.6888898 -0.3449505 0.6926960 -0.4677741 -0.5489623
25.9398050 -7.3986628 0.6094763 0.7104747 -0.7034412 0.0199041
25.8492020 -7.2840608 1.4985251 0.7282414 -0.6850674 0.0186309
25.9706375 -7.2777257 2.3429417 0.7865898 -0.6135741 -0.0693063
26.5855497 -7.5245111 3.0688248 0.9892127 -0.1455302 0.0167086
26.9523441 -7.6445659 3.8474668 0.9457146 0.3135199 0.0856107
24.7897861 -6.4636148 5.2797056 0.4814261 0.0072796 0.8764564
1.9048205 5.3986198 12.3523582 0.6959189 -0.7084994 -0.1171559
2.1295154 5.3707314 13.4105550 0.7125355 -0.7016118 0.0058323
1.9882002 5.5319217 14.5737247 0.6707973 -0.6341441 0.3845676
0.9917856 6.1361964 15.9992630 0.5511531 -0.3253267 0.7683702
34.2951269 -12.4041698 0.3975795 0.8328272 0.2326793 -0.5022541
34.5768806 -12.4849470 1.1197424 0.9374631 0.2635324 -0.2274062
34.6276919 -12.4497706 1.8965374 0.9851529 0.1676670 -0.0368991
34.3988105 -12.2735583 2.7473636 0.9062783 0.2109747 0.3662641
1.0085252 4.6374017 12.5448715 0.6172599 -0.7656046 0.1812176
1.2127632 4.6207691 13.6132385 0.6214179 -0.7800390 0.0733414
1.0503444 4.7896660 14.7869987 0.5846124 -0.7393556 0.3340384
0.1185012 5.3490881 16.1974419 0.4630628 -0.4773071 0.7468271
33.7294660 -13.0417959 -0.2845000 0.7535237 0.0845259 -0.6519642
34.1154682 -13.1718739 0.4164918 0.8956035 -0.0647229 -0.4401196
34.3326890 -13.2193177 1.1528935 0.9706730 -0.1202750 -0.2081533
34.4553680 -13.2203304 1.9110396 0.9856864 -0.1453257 0.0854566
34.2843984 -13.0764796 2.7453269 0.9187917 -0.0383629 0.3928742
33.8324018 -12.7933555 3.6609285 0.8002109 0.0605713 0.5966520
0.1436315 3.9361967 13.8579822 0.5522205 -0.8247616 0.1217411
-0.0018719 4.0936335 15.0327913 0.4993704 -0.7571257 0.4211768
-1.2202058 4.7839618 16.5340973 0.3234020 -0.4115401 0.8520833
33.1287233 -13.6654885 -0.9617186 0.5745913 0.1949931 -0.7948726
33.7631643 -13.9117655 -0.3113464 0.8471301 0.0005841 -0.5313852
34.0748218 -14.0035929 0.4034853 0.9404534 0.0032757 -0.3399068
34.2773656 -14.0431584 1.1408074 0.9768050 -0.0243775 -0.2127388
34.3640053 -14.0269568 1.9054505 0.9963257 -0.0420379 0.0746188
34.2110012 -13.8949907 2.7328211 0.9679135 -0.0273029 0.2497959
33.8488304 -13.6614845 3.6216988 0.8766452 0.0583384 0.4775875
-1.1341040 3.3395594 14.1602358 0.6599854 -0.6626934 0.3539163
-1.4447349 3.5743404 15.3905626 0.3731249 -0.7987310 0.4720239
30.9385375 -13.6063442 -2.1255102 0.4186125 0.2192528 -0.8813012
33.2810650 -14.5889585 -1.0102082 0.7136935 0.0018979 -0.7004555
33.7463368 -14.7508043 -0.3268968 0.8718300 -0.0357471 -0.4885024
34.0351235 -14.8301044 0.3904093 0.9361442 -0.0452942 -0.3486867
34.2864952 -14.8920111 1.1134482 0.9694675 -0.0395868 -0.2420036
34.3590470 -14.8697343 1.8784975 0.9958509 -0.0468515 0.0780124
34.1628566 -14.7204151 2.7139687 0.9734509 -0.0222581 0.2278112
34.0014489 -14.5871143 3.5462084 0.9422257 -0.0077193 0.3348899
32.4671708 -13.8028435 4.7655533 0.4532675 0.1216725 0.8830314
-3.0625338 3.1173286 15.7976759 0.3039089 -0.6928688 0.6538901
29.9376620 -14.0704309 -2.7515701 0.4043893 0.0914125 -0.9100071
33.2720458 -15.4288252 -1.0245276 0.7844638 -0.1635227 -0.5982281
33.6194069 -15.5331706 -0.3180754 0.8544394 -0.1880287 -0.4843330
33.9766307 -15.6423591 0.3817960 0.9007595 -0.1631481 -0.4025109
34.2434100 -15.7101873 1.0987724 0.9594590 -0.1365144 -0.2465810
34.3099119 -15.6857853 1.8627424 0.9868829 -0.1307851 0.0946431
34.1100848 -15.5382197 2.6965137 0.9558391 -0.1511245 0.2520575
33.9796877 -15.4223570 3.5178251 0.9419595 -0.1573550 0.2965665
33.4924874 -15.1407608 4.4429913 0.6966263 -0.0099355 0.7173654
-5.0725509 2.8182680 16.3162896 0.2106526 -0.5468954 0.8102659
32.3736545 -15.9177273 -1.6377001 0.5618274 -0.2859187 -0.7762735
32.9964054 -16.1428773 -0.9826236 0.6795414 -0.3976667 -0.6165100
33.3754987 -16.2591987 -0.2834484 0.7858220 -0.3317414 -0.5219496
33.7828069 -16.3885547 0.4043544 0.8309739 -0.2965346 -0.4706906
34.0806077 -16.4689394 1.1128519 0.9209842 -0.3106773 -0.2350907
34.1323254 -16.4385023 1.8790675 0.9377715 -0.2977829 0.1786335
33.9140032 -16.2859307 2.7162152 0.9066590 -0.3084221 0.2878285
33.6583232 -16.1160038 3.5698224 0.7949106 -0.4627401 0.3924139
33.2921177 -15.8954802 4.4612678 0.5382138 -0.4198300 0.7308000
31.1746907 -16.2851062 -2.2021548 0.4803630 -0.1792961 -0.8585478
31.9409177 -16.5672472 -1.5639578 0.5813857 -0.3839029 -0.7173627
32.5421386 -16.7778294 -0.9031515 0.6418071 -0.4445336 -0.6248788
33.0421689 -16.9445730 -0.2291497 0.6799587 -0.4409678 -0.5858358
33.5147028 -17.0997045 0.4439904 0.7738190 -0.3954784 -0.4947736
33.8208443 -17.1819865 1.1501485 0.8762725 -0.3855618 -0.2889440
33.8841235 -17.1573655 1.9129962 0.9057134 -0.3824788 0.1827382
33.6501723 -17.0013548 2.7534510 0.8442152 -0.3618176 0.3954600
33.0654448 -16.6896885 3.6943259 0.6397959 -0.5829076 0.5008792
32.2588993 -16.2788258 4.7100455 0.4604528 -0.4091455 0.7877710
6.2849246 -4.6988895 12.9473814 0.6021451 -0.0661782 0.7956392
30.9195099 -17.0193596 -2.1636046 0.5201414 -0.3462199 -0.7807590
31.5378575 -17.2318218 -1.4962086 0.5741900 -0.4662369 -0.6730000
32.1106377 -17.4253642 -0.8285156 0.5862345 -0.4829599 -0.6504452
32.6662414 -17.6120917 -0.1655143 0.6494359 -0.4588671 -0.6063613
33.1457799 -17.7666605 0.5067169 0.7035342 -0.4882189 -0.5164126
33.4611981 -17.8510248 1.2112701 0.8614805 -0.4656730 -0.2024845
33.5558468 -17.8404576 1.9667995 0.8465055 -0.5217765 0.1057247
33.2447498 -17.6546858 2.8271335 0.7385595 -0.4381129 0.5124324
32.3729342 -17.2259420 3.8451689 0.5742956 -0.4891862 0.6564156
31.6284088 -16.8510666 4.8469530 0.5661923 -0.3740111 0.7345352
6.0697826 -5.7152191 12.9560096 0.7390066 -0.1138563 0.6640075
30.5245887 -17.6940355 -2.0983117 0.5264311 -0.4213654 -0.7384589
31.0609139 -17.8672440 -1.4136697 0.5689613 -0.5502075 -0.6111913
31.6051292 -18.0442528 -0.7383940 0.5286343 -0.5398477 -0.6550650
32.2432999 -18.2611671 -0.0916031 0.5911141 -0.4999869 -0.6329275
32.7405333 -18.4195230 0.5777146 0.6777520 -0.5276260 -0.5121163
33.0385559 -18.4945625 1.2873511 0.7676159 -0.6016959 -0.2207440
33.1240269 -18.4803068 2.0462017 0.8169799 -0.5335915 0.2186869
32.6952273 -18.2491228 2.9377496 0.6469413 -0.4833750 0.5897590
31.7652691 -17.8056070 3.9731146 0.5988757 -0.5022799 0.6237489
31.1026062 -17.4738614 4.9547161 0.5817071 -0.4670401 0.6659507
5.7482548 -6.6824319 12.9951801 0.7225653 -0.3180599 0.6137894
4.3913922 -6.0390929 14.4472265 0.6430013 0.4200933 0.6403678
26.3413368 -16.9810660 -3.7785744 0.4620853 -0.1127820 -0.8796348
